ply
format ascii 1.0
comment VCGLIB generated
element vertex 233
property float x
property float y
property float z
element face 0
property list uchar int vertex_indices
end_header

-0.107954	6.47312	-3.92239	
-0.100351	6.47084	-3.87177	
-0.0931598	6.46851	-3.82102	
-0.0865412	6.46604	-3.77043	
-0.0799847	6.46338	-3.71978	
-0.0753126	6.46092	-3.66903	
-0.0706269	6.45856	-3.61766	
-0.0709395	6.45653	-3.56655	
-0.0699123	6.45461	-3.5154	
-0.0705537	6.453	-3.4642	
-0.0725276	6.45191	-3.4128	
-0.0826632	6.45163	-3.36268	
-0.105778	6.454	-3.31699	
-0.118726	6.45547	-3.26752	
-0.129079	6.45799	-3.21747	
-0.140167	6.46151	-3.16764	
-0.150757	6.465	-3.11733	
-0.15392	6.46628	-3.06636	
-0.157348	6.46778	-3.01513	
-0.162775	6.46793	-2.96402	
-0.164404	6.46869	-2.91228	
-0.165079	6.46655	-2.86086	
-0.166296	6.46133	-2.80966	
-0.167157	6.45928	-2.75828	
-0.166031	6.45357	-2.70724	
-0.166886	6.45074	-2.65623	
-0.169518	6.45076	-2.60329	
-0.172301	6.45079	-2.55146	
-0.175182	6.44952	-2.49904	
-0.177984	6.44521	-2.4469	
-0.180585	6.44038	-2.39565	
-0.182352	6.43789	-2.34411	
-0.18108	6.44474	-2.30072	
-0.182256	6.44407	-2.24947	
-0.182706	6.43245	-2.19866	
-0.180583	6.43107	-2.14769	
-0.177384	6.42957	-2.09679	
-0.175714	6.4254	-2.04598	
-0.17389	6.4211	-1.99506	
-0.167225	6.42291	-1.94415	
-0.16989	6.41712	-1.89324	
-0.162025	6.41888	-1.84257	
-0.15841	6.42283	-1.79175	
-0.147135	6.43233	-1.74285	
-0.154084	6.43327	-1.69155	
-0.165772	6.43218	-1.63913	
-0.17809	6.43063	-1.58658	
-0.190508	6.42884	-1.53374	
-0.202869	6.42658	-1.47981	
-0.212129	6.42303	-1.42765	
-0.215506	6.41696	-1.37703	
-0.216876	6.41496	-1.32537	
-0.220361	6.41528	-1.27403	
-0.224226	6.41317	-1.22227	
-0.229075	6.40896	-1.16931	
-0.235964	6.40009	-1.1167	
-0.246761	6.38155	-1.07009	
-0.259523	6.35843	-1.02601	
-0.273551	6.33287	-0.982563	
-0.289556	6.30868	-0.938369	
-0.309615	6.27323	-0.907513	
-0.330479	6.2411	-0.873719	
-0.355773	6.20774	-0.844536	
-0.381567	6.17335	-0.816637	

-0.0794013	6.46419	3.75138	
-0.0725611	6.46166	3.69942	
-0.0674862	6.45923	3.64667	
-0.0708367	6.45749	3.59569	
-0.0593677	6.4549	3.5458	
-0.064637	6.45345	3.49421	
-0.0764716	6.45303	3.44454	
-0.0792886	6.45199	3.39174	
-0.0920444	6.4528	3.3421	
-0.112346	6.45439	3.29492	
-0.123543	6.45651	3.2448	
-0.136135	6.45964	3.19511	
-0.145896	6.46315	3.14459	
-0.152691	6.46567	3.0932	
-0.154325	6.46706	3.04156	
-0.160483	6.46829	2.9902	
-0.163152	6.46808	2.93757	
-0.164256	6.4686	2.88627	
-0.164714	6.4631	2.83527	
-0.166944	6.45854	2.78346	
-0.167446	6.45778	2.75563	
-0.167565	6.45707	2.72295	
-0.166755	6.45344	2.67083	
-0.166341	6.4491	2.61904	
-0.168795	6.44446	2.56505	
-0.173138	6.44059	2.51398	
-0.176978	6.43896	2.45983	
-0.178477	6.44154	2.40467	
-0.179525	6.44455	2.35297	
-0.18368	6.43973	2.29937	
-0.184225	6.43602	2.24744	
-0.181247	6.43831	2.19597	
-0.179438	6.43101	2.14475	
-0.178791	6.42613	2.09374	
-0.175515	6.42411	2.04276	
-0.17169	6.4233	1.99136	
-0.168661	6.42227	1.9404	
-0.169305	6.4168	1.88923	
-0.164172	6.41897	1.83848	
-0.150875	6.42453	1.7891	

0.183432	7.73431	-0.00958212	
0.185806	7.6825	-0.00418933	
0.186171	7.63186	0.002135	
0.185676	7.57983	0.00903091	
0.183543	7.52878	0.0133778	
0.17733	7.47772	0.0118255	
0.172065	7.43102	0.0117359	
0.166381	7.37976	0.0118645	
0.158035	7.32808	0.00961651	
0.145928	7.27843	0.006753	
0.132498	7.22756	0.00405394	

0.118262	6.29789	-1.02549	
0.107488	6.25039	-1.00994	
0.087551	6.20311	-1.00247	
0.0627223	6.15865	-0.997317	
0.0327983	6.1166	-0.994905	
-0.00426846	6.07875	-0.991797	
-0.052834	6.05577	-1.00159	
-0.102002	6.0479	-1.01898	
-0.154379	6.03744	-1.02707	
-0.195634	6.04005	-1.03499	
-0.249162	6.04591	-1.03958	
-0.302168	6.05752	-1.04001	
-0.352467	6.07728	-1.0407	
-0.395635	6.10413	-1.04695	
-0.440545	6.12779	-1.03816	
-0.48217	6.15634	-1.02628	
-0.516781	6.19793	-1.01911	

0.167226	3.88465	3.41985e-005	
0.208149	3.91964	0.0015246	
0.240291	3.96012	0.000308501	
0.264421	3.99221	-0.000863923	
0.28998	4.02696	-0.00209627	
0.320846	4.07239	0.00107483	

-0.130538	6.03455	1.01961	
-0.179961	6.04088	1.03405	
-0.232463	6.04322	1.03802	
-0.283402	6.05211	1.03924	
-0.331807	6.06871	1.0413	
-0.359599	6.0833	1.04329	
-0.386173	6.09838	1.04438	
-0.431081	6.12324	1.04205	
-0.469905	6.15673	1.03699	
-0.505345	6.19571	1.03045	

-0.244248	3.92025	0.00107326	
-0.280368	3.9581	-0.00339227	
-0.314755	3.99745	-0.0050777	
-0.3413	4.04076	0.00333698	
-0.374582	4.08007	0.00422795	
-0.409915	4.1179	0.000853539	
-0.430148	4.16222	0.000587867	
-0.394958	4.20045	0.00160432	
-0.357306	4.23722	0.00262042	
-0.317153	4.27428	0.00368212	
-0.277505	4.3097	0.00470912	

0.52261	0.0979932	0.614016	
0.471999	0.110193	0.614543	
0.419437	0.122666	0.614842	
0.369581	0.133832	0.614728	
0.318097	0.145204	0.614015	
0.266872	0.15928	0.612767	
0.216928	0.173276	0.611294	
0.167301	0.186242	0.609683	
0.116471	0.200203	0.607492	
0.0659225	0.212232	0.605073	
0.0155517	0.225442	0.602205	
-0.0321694	0.24374	0.598741	
-0.0772468	0.268775	0.59489	
-0.118334	0.299007	0.590865	
-0.146851	0.341204	0.587203	
-0.171452	0.386342	0.583882	
-0.197306	0.430785	0.580563	
-0.21168	0.479994	0.577775	
-0.21756	0.508781	0.57649	
-0.223403	0.542173	0.575271	
-0.228449	0.594995	0.573759	
-0.231441	0.646809	0.572742	
-0.235253	0.697903	0.572355	
-0.239616	0.750043	0.57177	
-0.247575	0.8014	0.571278	
-0.258457	0.852215	0.571873	
-0.261699	0.904794	0.573052	
-0.266279	0.957057	0.57347	
-0.276601	1.00889	0.572493	
-0.28651	1.05893	0.571757	
-0.296024	1.11035	0.572613	
-0.303107	1.1617	0.573239	
-0.308775	1.21309	0.5723	
-0.320071	1.26381	0.572282	
-0.330429	1.31504	0.570723	
-0.331966	1.36674	0.567935	

0.523955	0.0976166	-0.613772	
0.471708	0.110469	-0.614376	
0.420938	0.122658	-0.614706	
0.36825	0.134386	-0.614585	
0.316438	0.14536	-0.613829	
0.26606	0.158684	-0.612699	
0.215419	0.173407	-0.611197	
0.164908	0.187668	-0.609422	
0.115418	0.20079	-0.607337	
0.0639938	0.212887	-0.604835	
0.0126581	0.223641	-0.602016	
-0.0348357	0.243059	-0.598489	
-0.0792464	0.268347	-0.594625	
-0.119909	0.300366	-0.590679	
-0.147497	0.343406	-0.586984	
-0.178466	0.383875	-0.583426	
-0.197822	0.431204	-0.580417	
-0.20962	0.465068	-0.578445	
-0.218547	0.515775	-0.576052	
-0.223921	0.566562	-0.574603	
-0.228576	0.618565	-0.573456	
-0.233141	0.669678	-0.572494	
-0.235983	0.721463	-0.57185	
-0.242902	0.773632	-0.571397	
-0.255362	0.82481	-0.571465	
-0.259397	0.876878	-0.572748	
-0.262976	0.929295	-0.572613	
-0.272925	0.979894	-0.572325	
-0.282055	1.03037	-0.571701	
-0.291425	1.08151	-0.571729	
-0.301638	1.13183	-0.572852	
-0.305084	1.18329	-0.572192	
-0.313622	1.23407	-0.572139	
-0.334076	1.28173	-0.577642	

-0.341118	6.21377	0.847143	
-0.316866	6.24741	0.877505	
-0.305364	6.2615	0.893864	
-0.27967	6.29228	0.929048	