ply
format ascii 1.0
comment VCGLIB generated
element vertex 409
property float x
property float y
property float z
element face 0
property list uchar int vertex_indices
end_header
-0.161574	-0.382931	-0.498581
0.0329948	0.0708839	-0.822678
-0.389347	-0.572609	0.0259809
-0.691101	0.114155	0.524396
-0.0263861	0.580089	-0.589001
0.053547	0.138962	-0.902642
-0.171159	-0.39357	-0.48722
-0.0329479	0.364377	-0.721928
-0.032883	0.562193	-0.580588
-0.750653	0.257977	0.632143
-0.151759	0.2316	-0.446179
0.10819	-0.328139	-0.714764
0.348662	0.61734	-0.96924
0.0488152	0.187649	-0.902604
0.0513776	0.152231	-0.903066
0.352983	0.60773	-0.96913
-0.154917	-0.375476	-0.506776
-0.761359	0.274933	0.649082
0.207554	-0.12906	-0.843609
0.0398535	0.235651	-0.89563
0.0519719	0.170441	-0.903481
-0.659819	-0.88112	0.421158
-0.374075	-0.560519	-0.0235071
0.0471845	0.199261	-0.901858
-0.0609501	-0.215103	-0.640947
-0.593663	-0.855661	0.339688
-0.610353	-0.670335	0.172362
-0.73908	0.417693	0.729414
-0.0739418	0.397469	-0.596264
-0.0540855	-0.192541	-0.655979
-0.143646	-0.36346	-0.519777
0.266525	0.772976	-0.890459
-0.554373	-0.262311	0.289174
-0.755205	0.498573	0.782721
-0.310463	-0.521195	-0.212087
-0.767403	0.547709	0.823382
0.0627146	-0.392885	-0.657608
-0.369213	-0.557525	-0.0378454
-0.598491	-0.176633	0.367784
0.335433	0.327612	-0.955735
-0.847951	0.848735	0.922023
-0.643237	-0.357199	0.296543
-0.59992	0.120469	0.567088
-0.735137	0.396393	0.71644
-0.629191	-0.0737251	0.438358
-0.63767	-0.37592	0.285515
-0.220842	-0.444488	-0.422883
-0.714417	-0.90523	0.509635
-0.636511	-0.385936	0.283241
-0.0693955	-0.243619	-0.62206
0.283632	0.0679411	-0.898623
-0.491185	-0.355551	0.16677
0.191159	0.811293	-0.806479
-0.779676	-0.946822	0.729821
0.346698	0.374509	-0.959359
-0.290498	-0.505786	-0.269624
-0.721756	0.330285	0.679888
-0.68092	0.0790196	0.496957
-0.589704	-0.197776	0.350862
-0.729976	0.363899	0.698559
0.256149	0.783861	-0.875144
-0.496537	-0.814922	0.244004
-0.861702	0.881101	0.927251
-0.00170225	-0.242731	-0.438525
-0.353924	-0.549395	-0.0825057
-0.728022	0.354108	0.693144
-0.805751	0.711876	0.898684
-0.830842	0.794396	0.913138
0.356404	0.427203	-0.962498
-0.0811033	0.409413	-0.574994
-0.329965	-0.535218	-0.154581
-0.272748	0.0394719	-0.475208
-0.362865	-0.554266	-0.0562174
-0.732569	0.379217	0.70702
-0.273921	-0.492037	-0.314578
0.0376983	0.0921397	-0.830063
-0.127878	-0.823408	0.891538
-0.699828	0.139697	0.544563
-0.745638	0.23854	0.619587
0.0181828	-0.32596	-0.420774
-0.600341	0.105986	0.552231
-0.725388	0.174232	0.576335
-0.57191	-0.233888	0.318353
-0.584875	-0.208058	0.342028
-0.736984	0.404818	0.722024
-0.49627	-0.349197	0.176198
0.331709	0.644489	-0.968886
-0.482535	-0.903278	0.868377
-0.0396606	0.551392	-0.575133
-0.0886534	-0.283838	-0.590832
-0.569251	-0.846406	0.313252
-0.15548	-0.824564	0.884548
0.21632	-0.100246	-0.854074
0.0329042	0.257828	-0.888609
-0.258718	-0.851093	0.883332
-0.743236	-0.919097	0.567678
-0.484732	-0.368562	0.147904
0.0434785	0.218941	-0.899268
-0.738392	0.203914	0.599235
0.363764	0.556	-0.970371
-0.249835	-0.471719	-0.373764
-0.379962	-0.564717	-0.00482101
0.182498	0.812221	-0.797851
0.277866	0.052936	-0.895992
-0.612275	-0.137201	0.396739
-0.014528	-0.0918783	-0.733274
0.309694	0.67089	-0.965072
-0.5945	-0.703484	0.162668
0.300813	0.137614	-0.912376
-0.0530346	0.376074	-0.658821
-0.770072	0.558891	0.833508
-0.357256	-0.551127	-0.0727317
0.270503	0.0205135	-0.887025
-0.112543	-0.322725	-0.55829
-0.0971964	-0.301562	-0.57712
-0.222292	0.246098	-0.480287
0.0195137	0.64648	-0.614327
-0.82453	0.767685	0.908103
0.359289	0.589713	-0.968904
-0.176126	-0.825898	0.879934
-0.48354	-0.413879	0.0773704
-0.278703	-0.858292	0.884729
-0.180839	-0.404368	-0.476329
-0.49028	-0.42303	0.0688254
0.105732	0.780312	-0.698808
0.275089	0.759537	-0.905771
-0.632268	-0.870397	0.385146
-0.742286	0.218153	0.608353
-0.78587	0.624482	0.865043
-0.675745	-0.887998	0.445404
-0.0475462	-0.173887	-0.668841
-0.521847	-0.313676	0.22679
-0.617692	-0.119474	0.408787
-0.58104	-0.216711	0.334403
-0.77637	0.589593	0.861483
-0.60223	-0.166529	0.375698
-0.225712	-0.44815	-0.409872
0.228448	-0.729529	0.924737
-0.325456	-0.532236	-0.16775
-0.384085	-0.567641	0.00785292
-0.151788	0.033605	-0.376187
-0.819583	0.755312	0.906176
-0.733816	0.191552	0.590348
0.223506	-0.0916076	-0.856404
-0.651091	-0.877572	0.408571
-0.269467	0.0581328	-0.473661
-0.301255	-0.863974	0.883253
-0.323991	-0.869722	0.881531
-0.729973	0.183349	0.583905
-0.0147766	0.594227	-0.595118
0.363499	0.571003	-0.968731
0.304012	0.151487	-0.915285
0.158997	-0.757764	0.908944
-0.674173	0.0590375	0.482118
-0.300546	-0.513571	-0.241287
-0.0804012	-0.269619	-0.602321
0.0114953	0.306949	-0.86121
0.0801757	-0.371268	-0.677321
-0.169874	0.269853	-0.47439
-0.55558	-0.841016	0.299391
-0.511557	-0.323372	0.212946
-0.622331	-0.101495	0.420436
-0.0957681	-0.817882	0.893829
-0.873841	0.907396	0.932171
-0.76444	0.535814	0.812918
-0.0585722	0.38089	-0.641362
-0.258787	0.102163	-0.473022
-0.586421	-0.71417	0.155905
0.241417	-0.0265188	-0.877324
-0.293768	-0.508332	-0.260371
0.202404	0.809384	-0.81716
0.366505	0.500553	-0.968519
-0.639859	-0.364408	0.289905
0.21443	0.806317	-0.828705
-0.629884	-0.9295	0.851975
-0.392755	-0.884786	0.878969
-0.128373	-0.0524363	-0.384618
-0.789767	0.634722	0.869139
-0.0375859	0.365711	-0.710047
0.320668	0.658218	-0.967625
-0.468592	-0.799546	0.219058
0.236958	0.797345	-0.851414
-0.745033	0.227579	0.614387
-0.511118	-0.822139	0.257358
0.307972	0.17105	-0.920059
-0.0661709	-0.231478	-0.629675
-0.636326	-0.0373283	0.462167
-0.0330159	0.361031	-0.738455
-0.411947	-0.75231	0.161489
0.070043	-0.38475	-0.664926
-0.825826	0.780822	0.911167
-0.283853	-0.500491	-0.2882
0.20896	-0.118032	-0.848224
-0.581748	-0.85117	0.326587
-0.297099	-0.510885	-0.250945
-0.772558	0.56971	0.843571
0.118598	0.792759	-0.714117
0.291845	0.0995885	-0.90482
0.0192076	0.0216057	-0.801968
-0.854194	0.863852	0.924394
-0.34116	-0.542223	-0.12048
-0.577329	-0.224467	0.32732
-0.605825	-0.15699	0.382749
-0.270361	-0.488837	-0.323623
-0.757327	0.268427	0.642214
-0.40988	-0.889301	0.878127
-0.0394758	-0.154044	-0.684285
-0.618977	-0.925886	0.849204
-0.671254	-0.93671	0.842274
-0.706706	-0.901834	0.49621
-0.688282	-0.939982	0.835604
-0.569098	-0.731384	0.142406
-0.752318	0.486414	0.77375
-0.77939	-0.941336	0.685961
-0.333647	-0.53741	-0.143519
-0.74157	0.432361	0.738041
-0.614478	-0.863653	0.363867
-0.632524	-0.0586199	0.448004
-0.280403	-0.497667	-0.297279
-0.623667	-0.867213	0.374951
-0.56748	-0.24306	0.309539
-0.265345	0.0793649	-0.472667
0.0131768	-0.298748	-0.424835
-0.747334	0.463073	0.757598
-0.541077	-0.835285	0.285277
-0.0116796	0.606888	-0.600168
-0.20287	-0.428003	-0.449785
-0.406173	-0.745824	0.154585
-0.687821	0.104692	0.516713
-0.609397	0.153257	0.589212
-0.469043	-0.901809	0.871898
-0.509248	-0.329501	0.204876
-0.239561	-0.462169	-0.38929
-0.243747	-0.84808	0.885079
0.175187	0.812343	-0.790162
0.0103886	-0.00851825	-0.786558
-0.0676369	-0.137525	-0.410907
-0.743166	0.441006	0.743174
-0.608369	-0.148942	0.388523
-0.570467	-0.916434	0.853617
-0.264574	-0.483876	-0.338335
-0.552787	-0.744351	0.132487
-0.143277	0.136623	-0.392998
-0.318053	-0.526906	-0.189629
0.147912	0.808863	-0.756905
0.172198	-0.753699	0.911733
0.295787	0.113543	-0.907234
0.250094	-0.714329	0.932935
0.340523	0.342212	-0.956236
0.365838	0.536133	-0.969892
0.00795641	-0.273166	-0.432444
0.31859	0.246342	-0.942386
-0.0785056	-0.260262	-0.607933
-0.418306	-0.759698	0.169686
0.366513	0.511302	-0.96922
0.007387	0.635201	-0.609596
-0.562252	-0.737858	0.138343
-0.350193	-0.547436	-0.0936422
-0.321771	-0.529636	-0.178674
-0.804915	0.698176	0.894411
-0.882668	0.925637	0.936032
-0.450098	-0.897605	0.873224
0.0358608	0.0809219	-0.826394
0.0254189	0.0430059	-0.811749
0.320089	0.262687	-0.946755
0.187187	-0.748778	0.914672
-0.314335	-0.524341	-0.20068
-0.684725	0.0941319	0.508591
0.136778	0.804822	-0.740537
-0.780666	-0.945446	0.717158
-0.523704	-0.30684	0.234969
0.126528	0.798667	-0.724839
0.102316	-0.33691	-0.70802
-0.516699	-0.907514	0.860856
-0.00948456	0.335948	-0.819033
-0.507454	-0.336754	0.195067
-0.721757	-0.90863	0.523302
-0.795498	0.665936	0.883365
-0.624395	0.211404	0.626872
-0.105411	-0.31129	-0.567395
-0.22664	-0.843174	0.885534
0.158905	0.811319	-0.771675
-0.04902	0.37255	-0.673176
-0.81292	0.734288	0.902697
-0.245486	0.149752	-0.474102
-0.397768	-0.734248	0.141704
-0.729225	-0.91215	0.537762
-0.0466145	0.541728	-0.569772
-0.340346	-0.875648	0.882913
-0.89601	0.951506	0.942404
0.00198502	-0.0382411	-0.769251
-0.138921	-0.822135	0.886775
0.0875481	-0.773403	0.884867
0.226739	0.802067	-0.840786
-0.540845	-0.755343	0.129101
-0.00230124	0.325782	-0.836627
-0.129296	-0.343693	-0.537795
-0.0446888	0.369989	-0.686382
-0.255069	-0.475404	-0.356994
-0.79002	0.643312	0.875905
-0.758308	0.510966	0.792309
-0.345202	-0.544606	-0.10823
-0.800124	0.676716	0.886627
0.122458	-0.766431	0.89835
-0.496987	-0.904247	0.863733
-0.337478	-0.539985	-0.131893
0.0210055	0.283911	-0.875419
-0.303878	-0.515964	-0.231651
-0.230099	0.208185	-0.475936
-0.307109	-0.518379	-0.222255
0.0981683	0.773566	-0.69189
-0.00602893	-0.0662683	-0.751409
-0.641627	-0.87385	0.396137
-0.625762	-0.0883507	0.429052
0.335655	0.316807	-0.953167
-0.683717	-0.891399	0.457605
0.200056	-0.744021	0.917397
-0.626535	-0.419048	0.259982
0.112995	-0.319051	-0.721904
-0.713906	0.154656	0.559202
-0.78162	-0.949161	0.745751
-0.541948	-0.282119	0.266216
-0.603722	0.132234	0.574845
-0.362149	-0.875891	0.880083
0.238977	-0.723077	0.928259
-0.725616	0.343309	0.687136
-0.426172	-0.767303	0.1779
-0.771579	-0.93388	0.639225
0.280667	0.737864	-0.925575
-0.116749	-0.329797	-0.552377
-0.867013	0.892763	0.929357
-0.487292	-0.362407	0.157225
0.339732	0.633201	-0.96926
-0.252568	0.126263	-0.473161
0.367976	0.523262	-0.968277
0.14626	-0.760454	0.905167
-0.536946	-0.289585	0.257055
0.11752	-0.305504	-0.731605
-0.0410829	0.367995	-0.698367
0.0882084	-0.356248	-0.690652
-0.60048	-0.693193	0.166954
-0.528747	-0.29901	0.245062
-0.0232814	-0.115194	-0.715317
-0.761368	0.523544	0.80255
-0.51624	-0.77514	0.127015
0.0890085	0.763183	-0.682164
-0.549328	-0.270726	0.279641
0.0699601	0.752471	-0.671942
-0.757352	-0.926089	0.599721
-0.278497	0.0288461	-0.473908
0.355195	0.394841	-0.957509
-0.841696	0.832795	0.919594
-0.667947	-0.884617	0.433313
0.0997865	-0.773636	0.891998
-0.434972	-0.775366	0.187139
0.362715	0.444209	-0.960644
-0.691564	-0.894855	0.470135
-0.604507	-0.859788	0.352154
0.316136	0.23205	-0.93862
-0.594048	-0.185662	0.360479
0.11153	-0.770517	0.895587
-0.699132	-0.898455	0.483287
-0.238017	0.175657	-0.474833
0.0973491	-0.348091	-0.699018
-0.736352	-0.915688	0.552801
-0.793226	0.652743	0.879444
-0.776771	-0.938087	0.664271
-0.526123	-0.829018	0.271212
-0.482111	-0.807521	0.231353
0.283916	0.712	-0.94462
-0.838461	0.820073	0.917182
-0.801786	0.687606	0.891705
-0.65285	-0.933432	0.848262
0.302971	0.679063	-0.962348
0.365727	0.487409	-0.963692
-0.780257	-0.943364	0.700864
-0.0744053	-0.818281	0.901
-0.501146	-0.343478	0.184797
-0.524849	-0.767248	0.125645
0.133556	-0.76445	0.9023
0.326983	0.276886	-0.947516
-0.563375	-0.249972	0.302461
-0.749904	-0.922354	0.582211
-0.709185	0.146519	0.552067
-0.722893	-0.94948	0.835062
-0.63432	-0.395377	0.278639
-0.485722	-0.378313	0.133904
0.298634	0.124994	-0.909315
0.2938	0.691376	-0.956987
-0.0314826	-0.135662	-0.699205
-0.0649363	0.38706	-0.621993
-0.749715	0.47462	0.76543
-0.137371	-0.355198	-0.527749
-0.617528	0.178979	0.604616
0.243888	0.79333	-0.859266
0.212072	-0.73865	0.920135
-0.744949	0.451357	0.749736
-0.76455	-0.929822	0.618062
-0.479098	-0.391134	0.109571
-0.710923	-0.945677	0.831934
0.168167	0.812158	-0.782639
0.0301629	0.059614	-0.818444
-0.0272788	-0.19219	-0.432307
-0.456422	-0.7916	0.207765
0.309665	0.201743	-0.930346
-0.718903	0.161788	0.565915
0.198164	-0.151868	-0.834867
0.11145	0.785886	-0.704946
-0.833493	0.808536	0.915878