ply
format ascii 1.0
comment VCGLIB generated
element vertex 1590
property float x
property float y
property float z
element face 0
property list uchar int vertex_indices
end_header
-0.731922 -0.447101 0.052105 
-0.736829 -0.442964 0.0523936 
-0.741448 -0.438634 0.0531634 
-0.745778 -0.433726 0.0545105 
-0.74982 -0.42853 0.0565312 
-0.753476 -0.422757 0.0593217 
-0.756651 -0.41631 0.0631706 
-0.759249 -0.409093 0.0683666 
-0.760982 -0.400722 0.0751985 
-0.416983 -0.901083 -0.143132 
-0.419389 -0.896079 -0.139957 
-0.421506 -0.890883 -0.136396 
-0.423142 -0.885398 -0.132163 
-0.424681 -0.879913 -0.127833 
-0.425451 -0.873948 -0.122444 
-0.425547 -0.867789 -0.11619 
-0.424393 -0.86115 -0.108492 
-0.284195 -0.719605 0.147173 
-0.284965 -0.712485 0.153909 
-0.285639 -0.705268 0.160837 
-0.286216 -0.697955 0.167765 
-0.286601 -0.690354 0.175174 
-0.286312 -0.682271 0.183642 
-0.285542 -0.673899 0.192687 
-0.284484 -0.66726 0.200289 
-0.283426 -0.660621 0.20789 
-0.28179 -0.6535 0.216454 
-0.280346 -0.648497 0.222613 
-0.279288 -0.643685 0.228386 
-0.277941 -0.638778 0.234448 
-0.276305 -0.633678 0.240799 
-0.274477 -0.628386 0.247534 
-0.272456 -0.622901 0.254655 
-0.270435 -0.617416 0.261775 
-0.268318 -0.611739 0.269185 
-0.265624 -0.605773 0.277267 
-0.577676 -0.4726 0.159971 
-0.58701 -0.473563 0.151407 
-0.595189 -0.474525 0.143806 
-0.601924 -0.475391 0.137551 
-0.607217 -0.475968 0.13274 
-0.61222 -0.476257 0.12841 
-0.617224 -0.476642 0.123984 
-0.624729 -0.477219 0.117441 
-0.634159 -0.477508 0.109646 
-0.643397 -0.477508 0.102237 
-0.652442 -0.477604 0.094828 
-0.661583 -0.4777 0.0874189 
-0.670147 -0.477412 0.0806833 
-0.678037 -0.476546 0.0751985 
-0.685542 -0.475102 0.0705798 
-0.692855 -0.473659 0.0662498 
-0.699784 -0.471734 0.0627857 
-0.706134 -0.469329 0.0600914 
-0.712196 -0.466538 0.0580707 
-0.718066 -0.463459 0.056435 
-0.724802 -0.459225 0.0554728 
-0.732499 -0.453452 0.0550878 
-0.73962 -0.447005 0.0558577 
-0.745008 -0.441039 0.0574934 
-0.74905 -0.435843 0.0595141 
-0.752899 -0.430262 0.0620159 
-0.75617 -0.4242 0.06548 
-0.759153 -0.417368 0.0699062 
-0.761559 -0.409959 0.0752947 
-0.763483 -0.401876 0.0817417 
-0.419678 -0.901083 -0.136204 
-0.422853 -0.894924 -0.132547 
-0.424874 -0.889632 -0.128795 
-0.42651 -0.884147 -0.124465 
-0.427664 -0.87847 -0.119654 
-0.428049 -0.872408 -0.113784 
-0.427664 -0.866057 -0.106856 
-0.426317 -0.860861 -0.100409 
-0.281309 -0.718066 0.161222 
-0.282656 -0.711234 0.167284 
-0.283714 -0.70421 0.173635 
-0.28458 -0.696993 0.180274 
-0.28458 -0.689199 0.188165 
-0.284292 -0.681116 0.196632 
-0.283522 -0.672649 0.20587 
-0.282944 -0.666202 0.212798 
-0.281886 -0.661583 0.218475 
-0.280828 -0.656868 0.224056 
-0.279865 -0.652249 0.229541 
-0.278903 -0.647534 0.235122 
-0.277748 -0.642723 0.240895 
-0.276401 -0.63772 0.246957 
-0.275054 -0.632812 0.253019 
-0.273611 -0.627712 0.25937 
-0.271686 -0.622324 0.266202 
-0.269762 -0.616839 0.273322 
-0.267549 -0.611162 0.280731 
-0.264758 -0.605004 0.289199 
-0.54217 -0.472985 0.198653 
-0.548039 -0.473851 0.192976 
-0.553813 -0.474525 0.187683 
-0.559201 -0.475006 0.182872 
-0.564494 -0.475391 0.178061 
-0.569882 -0.475872 0.17325 
-0.575367 -0.476449 0.16815 
-0.580852 -0.477123 0.163147 
-0.58624 -0.4777 0.158047 
-0.591725 -0.478374 0.152947 
-0.597113 -0.479047 0.147943 
-0.602309 -0.479529 0.143325 
-0.607505 -0.48001 0.13861 
-0.612798 -0.480491 0.133798 
-0.617994 -0.481164 0.128987 
-0.625595 -0.481742 0.122252 
-0.635121 -0.482127 0.114265 
-0.644359 -0.482127 0.106856 
-0.653404 -0.482223 0.0994468 
-0.662641 -0.482511 0.0916527 
-0.671398 -0.482415 0.0846284 
-0.679384 -0.481645 0.0789512 
-0.686986 -0.480298 0.0743325 
-0.694299 -0.478759 0.0700025 
-0.701323 -0.477123 0.0660573 
-0.707962 -0.47491 0.0629782 
-0.714121 -0.472312 0.060765 
-0.721241 -0.468367 0.0589368 
-0.729324 -0.463171 0.0577821 
-0.736733 -0.457205 0.0578783 
-0.743565 -0.450373 0.0592255 
-0.748665 -0.444022 0.0614386 
-0.75261 -0.43873 0.0636517 
-0.756267 -0.433149 0.066346 
-0.759538 -0.426702 0.0701949 
-0.762425 -0.419966 0.0747174 
-0.765023 -0.412653 0.0798172 
-0.766562 -0.406784 0.084436 
-0.420736 -0.90522 -0.131778 
-0.424585 -0.897715 -0.127351 
-0.427183 -0.891172 -0.122733 
-0.428723 -0.885687 -0.118403 
-0.429877 -0.88001 -0.113495 
-0.430166 -0.873948 -0.107433 
-0.429781 -0.867597 -0.100601 
-0.428819 -0.862593 -0.0947317 
-0.279673 -0.71364 0.177676 
-0.280924 -0.706712 0.183738 
-0.281597 -0.699302 0.190763 
-0.282078 -0.691797 0.198076 
-0.282367 -0.684003 0.205773 
-0.282078 -0.67592 0.214241 
-0.281212 -0.669377 0.221554 
-0.279865 -0.662449 0.229829 
-0.278422 -0.6535 0.240029 
-0.277075 -0.646572 0.248208 
-0.27592 -0.641665 0.254077 
-0.274765 -0.636854 0.259755 
-0.273611 -0.631946 0.265624 
-0.271975 -0.62675 0.272167 
-0.270147 -0.621362 0.279192 
-0.268222 -0.615877 0.286216 
-0.266202 -0.610296 0.293625 
-0.263507 -0.604234 0.301997 
-0.260524 -0.598076 0.310753 
-0.520327 -0.475487 0.224633 
-0.530238 -0.476449 0.215588 
-0.537166 -0.477027 0.209334 
-0.54294 -0.4777 0.203945 
-0.548713 -0.47847 0.198557 
-0.554198 -0.479047 0.193457 
-0.562281 -0.479625 0.18624 
-0.570267 -0.480202 0.17912 
-0.575752 -0.480779 0.174116 
-0.581236 -0.481453 0.169016 
-0.589319 -0.482319 0.161511 
-0.599711 -0.483185 0.152177 
-0.610296 -0.48434 0.142459 
-0.620784 -0.485494 0.132836 
-0.630888 -0.486264 0.123984 
-0.64051 -0.486649 0.115805 
-0.649747 -0.486938 0.108011 
-0.658985 -0.487226 0.100313 
-0.66803 -0.487419 0.0928073 
-0.676498 -0.487034 0.0862642 
-0.68458 -0.486264 0.080587 
-0.692278 -0.485109 0.0755834 
-0.699495 -0.48357 0.0713496 
-0.706423 -0.481838 0.0675969 
-0.714409 -0.478855 0.064229 
-0.72307 -0.474236 0.0619197 
-0.731056 -0.468944 0.0609575 
-0.738561 -0.463171 0.060765 
-0.745586 -0.456627 0.0617273 
-0.751744 -0.449122 0.0643253 
-0.756459 -0.44229 0.0675007 
-0.759923 -0.436324 0.070676 
-0.763195 -0.429974 0.0744287 
-0.766274 -0.42343 0.0785663 
-0.768968 -0.416406 0.0834737 
-0.771277 -0.408708 0.0892471 
-0.422949 -0.906663 -0.125427 
-0.426702 -0.899254 -0.120904 
-0.429396 -0.892711 -0.116382 
-0.431032 -0.887323 -0.112148 
-0.432283 -0.881645 -0.107433 
-0.432956 -0.875776 -0.101756 
-0.432475 -0.869425 -0.094828 
-0.431417 -0.864325 -0.0887659 
-0.278133 -0.70931 0.194227 
-0.279288 -0.702189 0.200481 
-0.280154 -0.694876 0.207409 
-0.280443 -0.687178 0.215011 
-0.280443 -0.679192 0.223286 
-0.279577 -0.670628 0.232524 
-0.278422 -0.661872 0.242627 
-0.276786 -0.65273 0.253211 
-0.275439 -0.645802 0.261294 
-0.274381 -0.640991 0.267068 
-0.27313 -0.635987 0.273033 
-0.271879 -0.63108 0.278999 
-0.270628 -0.626076 0.285158 
-0.268896 -0.620784 0.291893 
-0.266779 -0.615107 0.299399 
-0.264373 -0.609334 0.307385 
-0.261872 -0.603368 0.315468 
-0.258889 -0.597113 0.324417 
-0.254943 -0.590281 0.334809 
-0.491268 -0.476834 0.257926 
-0.497137 -0.477412 0.252634 
-0.503103 -0.477989 0.247342 
-0.50878 -0.478566 0.242146 
-0.514554 -0.479047 0.23695 
-0.520423 -0.479721 0.231561 
-0.528891 -0.480587 0.223767 
-0.537166 -0.481261 0.216454 
-0.542843 -0.481838 0.211258 
-0.551215 -0.482704 0.203464 
-0.562088 -0.48357 0.193649 
-0.572865 -0.484532 0.183835 
-0.58345 -0.485302 0.174405 
-0.594323 -0.486649 0.164109 
-0.605004 -0.487804 0.15439 
-0.615396 -0.488766 0.145057 
-0.625788 -0.489921 0.135338 
-0.636084 -0.490883 0.126101 
-0.645802 -0.49146 0.117729 
-0.655232 -0.491941 0.10955 
-0.664566 -0.492326 0.101564 
-0.673322 -0.49223 0.0945394 
-0.681694 -0.491749 0.0881887 
-0.689776 -0.490979 0.0826077 
-0.697282 -0.489824 0.0777003 
-0.704498 -0.488285 0.0735627 
-0.712677 -0.485494 0.0699062 
-0.721626 -0.481357 0.0669233 
-0.729901 -0.476353 0.0652875 
-0.737792 -0.471061 0.0644215 
-0.745297 -0.465095 0.0643253 
-0.751937 -0.458263 0.065961 
-0.757806 -0.450373 0.0692327 
-0.762232 -0.443156 0.0728891 
-0.7656 -0.437094 0.0763532 
-0.768679 -0.430551 0.0804908 
-0.771566 -0.423719 0.0851095 
-0.774068 -0.41631 0.090498 
-0.775607 -0.410248 0.0953092 
-0.423623 -0.910994 -0.12052 
-0.42776 -0.903681 -0.116478 
-0.431224 -0.896079 -0.111475 
-0.433534 -0.889343 -0.106471 
-0.434785 -0.883762 -0.101564 
-0.435266 -0.8777 -0.0957902 
-0.434785 -0.87135 -0.0887659 
-0.433822 -0.866346 -0.0828001 
-0.276594 -0.705268 0.210392 
-0.277652 -0.698051 0.216935 
-0.278229 -0.690546 0.224344 
-0.278518 -0.682848 0.231946 
-0.278133 -0.674573 0.240799 
-0.277363 -0.666105 0.250036 
-0.27592 -0.65706 0.260525 
-0.274381 -0.647919 0.271109 
-0.272649 -0.640702 0.279865 
-0.271301 -0.635699 0.286024 
-0.269954 -0.630599 0.292182 
-0.268607 -0.625499 0.298436 
-0.267164 -0.620303 0.30498 
-0.265432 -0.615011 0.311908 
-0.263315 -0.609334 0.319413 
-0.261006 -0.60356 0.327303 
-0.258311 -0.597498 0.335771 
-0.485783 -0.481549 0.269185 
-0.494539 -0.482319 0.261294 
-0.505797 -0.482993 0.25148 
-0.516959 -0.483762 0.241665 
-0.528121 -0.484628 0.23185 
-0.539283 -0.485687 0.221554 
-0.550156 -0.486457 0.211836 
-0.561126 -0.487419 0.201925 
-0.571807 -0.488189 0.192302 
-0.582487 -0.489055 0.182776 
-0.593072 -0.490017 0.17325 
-0.603753 -0.491075 0.163339 
-0.61453 -0.492519 0.153236 
-0.624922 -0.493481 0.143806 
-0.635218 -0.494539 0.134376 
-0.645514 -0.495694 0.124946 
-0.655136 -0.496368 0.116382 
-0.664758 -0.496945 0.108011 
-0.673803 -0.497137 0.100505 
-0.68256 -0.497137 0.0933847 
-0.690642 -0.496368 0.0876113 
-0.69834 -0.495405 0.0824152 
-0.705364 -0.493673 0.0786625 
-0.713736 -0.491075 0.0746212 
-0.722877 -0.487034 0.0713496 
-0.731249 -0.482319 0.0693289 
-0.739235 -0.477027 0.0683666 
-0.746644 -0.471157 0.0683666 
-0.753669 -0.46471 0.0693289 
-0.759923 -0.457397 0.0717345 
-0.765504 -0.449122 0.0756796 
-0.769642 -0.441424 0.0801059 
-0.772721 -0.434977 0.0841472 
-0.775511 -0.428049 0.0889584 
-0.778013 -0.42064 0.094347 
-0.780034 -0.412557 0.100986 
-0.425643 -0.913207 -0.115324 
-0.429781 -0.90599 -0.111282 
-0.432956 -0.899735 -0.107337 
-0.434881 -0.894539 -0.103584 
-0.436613 -0.889055 -0.0992542 
-0.437575 -0.883281 -0.0941544 
-0.437864 -0.877219 -0.0879961 
-0.437287 -0.870868 -0.0808756 
-0.435939 -0.865672 -0.0744286 
-0.275728 -0.698436 0.228386 
-0.276305 -0.690931 0.235699 
-0.276594 -0.683137 0.243397 
-0.27669 -0.675247 0.25148 
-0.275824 -0.666683 0.261102 
-0.274765 -0.65783 0.271013 
-0.273322 -0.648785 0.281405 
-0.272071 -0.641761 0.289584 
-0.27082 -0.636854 0.29555 
-0.269569 -0.63185 0.301708 
-0.268415 -0.626943 0.307674 
-0.266971 -0.621843 0.314121 
-0.265432 -0.61655 0.320856 
-0.263988 -0.611354 0.327496 
-0.466635 -0.484725 0.292374 
-0.4726 -0.485206 0.287082 
-0.481164 -0.485687 0.279673 
-0.489632 -0.486168 0.27236 
-0.498196 -0.486649 0.264855 
-0.509262 -0.487226 0.255328 
-0.520038 -0.487707 0.246187 
-0.530816 -0.488189 0.23695 
-0.541592 -0.488766 0.227424 
-0.552658 -0.489632 0.217513 
-0.563243 -0.490402 0.208083 
-0.573827 -0.490979 0.198749 
-0.584412 -0.491845 0.189223 
-0.594996 -0.492711 0.179601 
-0.605677 -0.493866 0.169786 
-0.616262 -0.494924 0.160067 
-0.626654 -0.495983 0.150734 
-0.637046 -0.497137 0.141015 
-0.647246 -0.498196 0.131778 
-0.657734 -0.499735 0.121674 
-0.667837 -0.50089 0.112244 
-0.677267 -0.501467 0.103969 
-0.68612 -0.501467 0.0969449 
-0.69401 -0.500601 0.091364 
-0.701612 -0.499447 0.0864566 
-0.708828 -0.498003 0.0822228 
-0.716911 -0.495117 0.0786625 
-0.725956 -0.491075 0.0755834 
-0.734231 -0.486168 0.0738514 
-0.742314 -0.481068 0.0726005 
-0.749916 -0.475295 0.0723118 
-0.75694 -0.46904 0.0730816 
-0.763291 -0.461823 0.075391 
-0.768968 -0.453644 0.0791437 
-0.773202 -0.446235 0.0833775 
-0.776281 -0.439788 0.0874189 
-0.779071 -0.432956 0.0920375 
-0.781477 -0.425451 0.0977147 
-0.783305 -0.41708 0.104739 
-0.424008 -0.918499 -0.111186 
-0.42776 -0.914169 -0.109743 
-0.430936 -0.909646 -0.107626 
-0.433726 -0.904739 -0.104835 
-0.436036 -0.899639 -0.101467 
-0.43796 -0.894443 -0.0976185 
-0.439307 -0.888862 -0.0929035 
-0.440462 -0.883185 -0.0879961 
-0.440462 -0.877027 -0.0815491 
-0.439307 -0.870291 -0.0735627 
-0.276786 -0.693048 0.242242 
-0.276594 -0.684965 0.25071 
-0.276497 -0.676979 0.259081 
-0.276016 -0.668511 0.268222 
-0.275439 -0.66014 0.277267 
-0.274765 -0.6535 0.284677 
-0.274092 -0.648978 0.289873 
-0.273322 -0.644455 0.295069 
-0.272552 -0.63974 0.300457 
-0.271686 -0.635025 0.306038 
-0.448833 -0.486168 0.315372 
-0.457878 -0.486841 0.307193 
-0.466827 -0.487611 0.29911 
-0.474332 -0.488285 0.292278 
-0.479913 -0.488477 0.287563 
-0.485591 -0.488766 0.282656 
-0.49146 -0.489247 0.27746 
-0.497041 -0.48944 0.272745 
-0.50243 -0.489632 0.268222 
-0.510512 -0.489824 0.261487 
-0.521193 -0.490113 0.252538 
-0.52918 -0.490402 0.245706 
-0.534472 -0.49069 0.241087 
-0.53986 -0.490979 0.236372 
-0.545345 -0.491364 0.231465 
-0.550926 -0.491845 0.226461 
-0.559009 -0.492326 0.219341 
-0.566707 -0.492615 0.212701 
-0.571999 -0.492904 0.208083 
-0.577291 -0.493288 0.203272 
-0.585085 -0.49377 0.19644 
-0.592591 -0.494058 0.189993 
-0.597787 -0.494443 0.185374 
-0.603079 -0.494924 0.180467 
-0.608371 -0.495502 0.175656 
-0.61376 -0.496079 0.170556 
-0.619148 -0.496752 0.165552 
-0.624344 -0.49733 0.160837 
-0.629637 -0.497907 0.15593 
-0.637527 -0.498869 0.148617 
-0.647438 -0.499639 0.139764 
-0.655328 -0.500698 0.132355 
-0.660909 -0.501756 0.126678 
-0.66649 -0.503007 0.120905 
-0.673996 -0.503777 0.113977 
-0.683426 -0.50445 0.105605 
-0.691893 -0.504162 0.0991581 
-0.69988 -0.503392 0.0933847 
-0.707289 -0.502141 0.0888622 
-0.714121 -0.500216 0.0853019 
-0.720472 -0.497811 0.0827039 
-0.727881 -0.494347 0.0802984 
-0.736445 -0.489824 0.0781814 
-0.744527 -0.484628 0.0769305 
-0.752033 -0.478951 0.0766418 
-0.759057 -0.4726 0.0775079 
-0.765696 -0.465672 0.0793361 
-0.7707 -0.459322 0.0818379 
-0.77426 -0.453644 0.0846284 
-0.777532 -0.447486 0.0883811 
-0.780419 -0.440847 0.0928073 
-0.783017 -0.433726 0.0980034 
-0.78523 -0.425836 0.104258 
-0.786384 -0.419389 0.109839 
-0.426125 -0.920808 -0.107626 
-0.429396 -0.91619 -0.105509 
-0.432475 -0.911571 -0.103296 
-0.43517 -0.906663 -0.100409 
-0.437479 -0.90166 -0.0970411 
-0.4395 -0.896464 -0.0932884 
-0.441135 -0.890979 -0.0889584 
-0.442098 -0.885206 -0.083666 
-0.442483 -0.87924 -0.0777003 
-0.442098 -0.874429 -0.0723117 
-0.441135 -0.870965 -0.0678854 
-0.433726 -0.487419 0.335482 
-0.440462 -0.488381 0.328939 
-0.447101 -0.489247 0.322396 
-0.453163 -0.489728 0.317008 
-0.459129 -0.490209 0.311619 
-0.465287 -0.490787 0.305942 
-0.471061 -0.491075 0.300842 
-0.476738 -0.491364 0.296031 
-0.482511 -0.491653 0.291027 
-0.487996 -0.491845 0.286312 
-0.493481 -0.492038 0.281694 
-0.499062 -0.492326 0.276979 
-0.504643 -0.492519 0.272264 
-0.509935 -0.492615 0.267837 
-0.515227 -0.492711 0.263411 
-0.520423 -0.492711 0.259177 
-0.525716 -0.492904 0.254751 
-0.5312 -0.493192 0.250036 
-0.536396 -0.493385 0.245514 
-0.541592 -0.493481 0.241184 
-0.546789 -0.493577 0.236757 
-0.551985 -0.49377 0.232331 
-0.557181 -0.493962 0.227905 
-0.562569 -0.494251 0.223286 
-0.567765 -0.494539 0.218667 
-0.572865 -0.494636 0.214337 
-0.578061 -0.494924 0.209815 
-0.583161 -0.495213 0.205292 
-0.588261 -0.495309 0.201058 
-0.593457 -0.495694 0.19644 
-0.598749 -0.496175 0.191629 
-0.603945 -0.496656 0.186817 
-0.609334 -0.497234 0.181814 
-0.614626 -0.497811 0.176907 
-0.619822 -0.498196 0.172288 
-0.625018 -0.498773 0.167477 
-0.63031 -0.49935 0.162665 
-0.63541 -0.499832 0.157951 
-0.64051 -0.500313 0.153428 
-0.64561 -0.500794 0.148809 
-0.650806 -0.501467 0.143902 
-0.656194 -0.502333 0.13861 
-0.661679 -0.503392 0.133029 
-0.667452 -0.504643 0.127063 
-0.67313 -0.505894 0.121097 
-0.678326 -0.50676 0.116093 
-0.685254 -0.507145 0.109935 
-0.693914 -0.507048 0.103199 
-0.7019 -0.506279 0.0974261 
-0.70931 -0.504931 0.0929998 
-0.716045 -0.503103 0.0894395 
-0.722396 -0.500698 0.0868415 
-0.728458 -0.498003 0.0847246 
-0.734231 -0.495117 0.0830888 
-0.739812 -0.491845 0.0818379 
-0.745105 -0.488381 0.0812606 
-0.750301 -0.484725 0.0807794 
-0.755401 -0.480972 0.0804908 
-0.760115 -0.476834 0.0810681 
-0.764638 -0.472408 0.0819341 
-0.768872 -0.467693 0.0832813 
-0.772817 -0.462497 0.0854944 
-0.776473 -0.456916 0.0882848 
-0.779649 -0.450758 0.0920375 
-0.782632 -0.444215 0.0963676 
-0.78523 -0.437094 0.10166 
-0.787347 -0.429204 0.107914 
-0.788694 -0.422757 0.113495 
-0.789175 -0.417946 0.118018 
-0.425836 -0.924561 -0.103777 
-0.430166 -0.92052 -0.103103 
-0.432668 -0.915612 -0.100024 
-0.435458 -0.910801 -0.0973297 
-0.438056 -0.905894 -0.0942506 
-0.440173 -0.900698 -0.0906904 
-0.442001 -0.895405 -0.0865528 
-0.443156 -0.889728 -0.0816454 
-0.444022 -0.883955 -0.0762569 
-0.443926 -0.8777 -0.0696175 
-0.443156 -0.872697 -0.0637478 
-0.442001 -0.869233 -0.0591292 
-0.4191 -0.489343 0.354438 
-0.425643 -0.490209 0.347991 
-0.432187 -0.490979 0.341641 
-0.438826 -0.491941 0.335098 
-0.445273 -0.492615 0.328939 
-0.451335 -0.493096 0.323454 
-0.457205 -0.493481 0.318258 
-0.463074 -0.49377 0.313159 
-0.468848 -0.494154 0.307963 
-0.474717 -0.494443 0.302959 
-0.480395 -0.494732 0.297955 
-0.485879 -0.494924 0.293433 
-0.491268 -0.494924 0.28891 
-0.496752 -0.495117 0.284292 
-0.502333 -0.495405 0.279481 
-0.507914 -0.495694 0.274669 
-0.513207 -0.495694 0.270436 
-0.51821 -0.495598 0.26649 
-0.523406 -0.495598 0.262256 
-0.528602 -0.495694 0.257926 
-0.533798 -0.495694 0.253693 
-0.538898 -0.495694 0.249459 
-0.544094 -0.495886 0.245033 
-0.549387 -0.496175 0.240318 
-0.554679 -0.496368 0.235795 
-0.559875 -0.49656 0.231369 
-0.564975 -0.496752 0.226943 
-0.570075 -0.496849 0.222613 
-0.575174 -0.497041 0.218282 
-0.580274 -0.497234 0.213952 
-0.585374 -0.497426 0.209622 
-0.590281 -0.497426 0.205485 
-0.595285 -0.497618 0.201251 
-0.600577 -0.4981 0.196344 
-0.605966 -0.498677 0.19134 
-0.611162 -0.499062 0.186721 
-0.616166 -0.499447 0.182199 
-0.621458 -0.499928 0.177484 
-0.626654 -0.500505 0.172673 
-0.631657 -0.500794 0.168246 
-0.636469 -0.500986 0.164109 
-0.641568 -0.501467 0.159586 
-0.646861 -0.502141 0.154486 
-0.652153 -0.502911 0.149483 
-0.65783 -0.504065 0.143613 
-0.663796 -0.505701 0.13707 
-0.669569 -0.507048 0.131008 
-0.675343 -0.508395 0.12485 
-0.68102 -0.509743 0.118884 
-0.688333 -0.510512 0.112148 
-0.696704 -0.510127 0.105894 
-0.704498 -0.509261 0.100505 
-0.711715 -0.507818 0.0961751 
-0.718355 -0.505701 0.0929998 
-0.724802 -0.503392 0.0902093 
-0.730767 -0.500698 0.0881887 
-0.736445 -0.497618 0.0867453 
-0.742026 -0.494347 0.0855906 
-0.747414 -0.490979 0.0848208 
-0.752514 -0.487323 0.084436 
-0.757517 -0.483474 0.0843397 
-0.762136 -0.47924 0.084917 
-0.766562 -0.474717 0.0859755 
-0.770796 -0.469906 0.0875151 
-0.774838 -0.464806 0.089632 
-0.778398 -0.459322 0.0923263 
-0.781477 -0.452971 0.0963676 
-0.784364 -0.446139 0.101179 
-0.786962 -0.439115 0.106279 
-0.788982 -0.431032 0.112918 
-0.790233 -0.424489 0.118691 
-0.790522 -0.419485 0.123406 
-0.427183 -0.926004 -0.0988693 
-0.431224 -0.921771 -0.0978109 
-0.434207 -0.917152 -0.0954053 
-0.43719 -0.912437 -0.0929035 
-0.439788 -0.907529 -0.0899206 
-0.442098 -0.902526 -0.086649 
-0.443733 -0.897041 -0.0823189 
-0.445081 -0.891364 -0.0775078 
-0.445947 -0.885687 -0.0722155 
-0.445754 -0.879336 -0.0653836 
-0.444984 -0.874429 -0.0595141 
-0.329901 -0.484628 0.440173 
-0.336252 -0.484725 0.434785 
-0.342699 -0.485013 0.429204 
-0.350974 -0.485494 0.421891 
-0.360789 -0.486168 0.413327 
-0.409863 -0.491268 0.368391 
-0.416599 -0.492134 0.361848 
-0.423238 -0.492904 0.355401 
-0.429781 -0.49377 0.34905 
-0.436132 -0.494443 0.342892 
-0.44229 -0.49502 0.337118 
-0.448545 -0.495502 0.331441 
-0.454607 -0.495983 0.325956 
-0.460476 -0.496464 0.320568 
-0.466346 -0.496752 0.315468 
-0.472119 -0.497041 0.310464 
-0.477796 -0.497234 0.305557 
-0.483377 -0.497522 0.300746 
-0.488862 -0.497618 0.296127 
-0.494347 -0.497715 0.291605 
-0.499639 -0.497715 0.287371 
-0.504931 -0.497811 0.283041 
-0.51032 -0.497907 0.278422 
-0.515612 -0.4981 0.273996 
-0.520808 -0.498003 0.269858 
-0.525908 -0.498003 0.265624 
-0.531008 -0.497907 0.261679 
-0.536012 -0.497811 0.257638 
-0.541015 -0.497811 0.253404 
-0.546115 -0.497907 0.249266 
-0.551215 -0.497907 0.245033 
-0.556411 -0.4981 0.24051 
-0.561703 -0.498388 0.235988 
-0.566707 -0.498388 0.231754 
-0.571614 -0.498388 0.227712 
-0.576714 -0.498484 0.223382 
-0.581814 -0.498677 0.219149 
-0.586721 -0.498773 0.214915 
-0.591725 -0.498869 0.210681 
-0.596825 -0.499158 0.206158 
-0.602117 -0.499639 0.201347 
-0.607313 -0.50012 0.196632 
-0.612413 -0.500409 0.192206 
-0.617416 -0.500698 0.18778 
-0.622516 -0.501083 0.183257 
-0.627616 -0.501467 0.178735 
-0.632523 -0.50166 0.174501 
-0.637335 -0.501949 0.170267 
-0.642242 -0.502237 0.165937 
-0.647438 -0.502718 0.161222 
-0.653115 -0.503969 0.155352 
-0.65937 -0.505701 0.148521 
-0.665624 -0.507626 0.141304 
-0.671975 -0.509454 0.134183 
-0.677941 -0.511186 0.127544 
-0.683522 -0.512341 0.121867 
-0.688429 -0.512918 0.117344 
-0.694972 -0.513014 0.11186 
-0.703055 -0.512341 0.106086 
-0.710464 -0.51109 0.101564 
-0.717296 -0.509261 0.0979072 
-0.723839 -0.507145 0.094828 
-0.729998 -0.504547 0.0925187 
-0.735771 -0.501564 0.0909792 
-0.741448 -0.498581 0.0894395 
-0.746837 -0.495117 0.0885736 
-0.751937 -0.491556 0.0880924 
-0.757036 -0.487804 0.0879 
-0.761751 -0.483666 0.0883811 
-0.76637 -0.47924 0.0891509 
-0.7707 -0.474717 0.0903056 
-0.774934 -0.469906 0.0919414 
-0.77859 -0.464421 0.0946356 
-0.781766 -0.458263 0.0983883 
-0.784652 -0.45172 0.102815 
-0.787347 -0.444696 0.107914 
-0.789752 -0.43719 0.113688 
-0.791196 -0.431032 0.118788 
-0.791773 -0.426413 0.123021 
-0.425932 -0.929661 -0.0949241 
-0.430358 -0.925716 -0.0943468 
-0.434015 -0.921386 -0.0928073 
-0.436998 -0.916671 -0.0904017 
-0.439981 -0.911956 -0.0878999 
-0.442386 -0.906856 -0.0846283 
-0.444599 -0.901852 -0.0810681 
-0.446235 -0.896368 -0.0768342 
-0.447294 -0.89069 -0.0716381 
-0.447871 -0.884725 -0.065961 
-0.447679 -0.87847 -0.0591292 
-0.446716 -0.873466 -0.0530671 
-0.325956 -0.48713 0.448256 
-0.332788 -0.487611 0.44229 
-0.339139 -0.487707 0.436902 
-0.34549 -0.487996 0.431513 
-0.352225 -0.488477 0.425547 
-0.358768 -0.488862 0.419774 
-0.365215 -0.489247 0.414193 
-0.371662 -0.489632 0.408516 
-0.378494 -0.490306 0.402261 
-0.385326 -0.490979 0.396007 
-0.391773 -0.491556 0.390233 
-0.398509 -0.49223 0.383979 
-0.405244 -0.493 0.377821 
-0.411787 -0.493673 0.371759 
-0.418523 -0.494539 0.365119 
-0.425162 -0.495405 0.358576 
-0.431706 -0.496271 0.352225 
-0.438056 -0.496849 0.346163 
-0.444215 -0.49733 0.340486 
-0.450373 -0.497811 0.334905 
-0.456242 -0.498196 0.329613 
-0.462016 -0.498484 0.324609 
-0.467789 -0.498773 0.319509 
-0.473466 -0.498966 0.314602 
-0.479144 -0.499254 0.309791 
-0.484628 -0.49935 0.305172 
-0.489921 -0.49935 0.300842 
-0.495309 -0.499447 0.296416 
-0.500794 -0.499639 0.291701 
-0.506375 -0.499832 0.286986 
-0.511667 -0.499928 0.282463 
-0.516767 -0.499832 0.278422 
-0.521867 -0.499735 0.274477 
-0.526967 -0.499735 0.270339 
-0.532066 -0.499735 0.266202 
-0.53707 -0.499639 0.26216 
-0.541977 -0.499543 0.258119 
-0.546981 -0.499447 0.254174 
-0.551888 -0.49935 0.250132 
-0.556988 -0.49935 0.245995 
-0.561896 -0.49935 0.241857 
-0.566995 -0.499447 0.23772 
-0.572095 -0.499639 0.233293 
-0.577099 -0.499735 0.228963 
-0.582102 -0.499735 0.224922 
-0.587106 -0.499928 0.220592 
-0.59211 -0.500024 0.216358 
-0.597017 -0.500216 0.212028 
-0.602021 -0.500409 0.207698 
-0.607024 -0.500601 0.203368 
-0.61222 -0.501083 0.198749 
-0.617416 -0.501467 0.19413 
-0.62242 -0.501852 0.189608 
-0.627231 -0.501949 0.185663 
-0.631946 -0.501949 0.181718 
-0.636854 -0.502237 0.177484 
-0.641761 -0.502526 0.173058 
-0.646861 -0.503007 0.168439 
-0.652442 -0.503969 0.162954 
-0.658792 -0.505894 0.155641 
-0.666009 -0.508684 0.146885 
-0.672745 -0.51109 0.138898 
-0.678711 -0.512822 0.132259 
-0.684484 -0.514169 0.126197 
-0.68968 -0.515131 0.120905 
-0.696319 -0.515324 0.11542 
-0.704306 -0.514554 0.109839 
-0.711619 -0.513207 0.10522 
-0.718547 -0.511475 0.101467 
-0.725186 -0.509454 0.0981959 
-0.731152 -0.50676 0.0961751 
-0.736926 -0.503681 0.0946356 
-0.742699 -0.500794 0.093096 
-0.748088 -0.497426 0.0921338 
-0.75338 -0.493962 0.0914602 
-0.758383 -0.490209 0.0911716 
-0.763195 -0.486264 0.091364 
-0.767717 -0.481742 0.0924224 
-0.772047 -0.477123 0.0936734 
-0.776185 -0.472216 0.0953092 
-0.779937 -0.466923 0.097811 
-0.783305 -0.460957 0.101275 
-0.786192 -0.454318 0.105797 
-0.78879 -0.44739 0.110801 
-0.791003 -0.439788 0.116863 
-0.792543 -0.43363 0.121867 
-0.793216 -0.429108 0.126004 
-0.793601 -0.424008 0.130912 
-0.426894 -0.931489 -0.0912677 
-0.431321 -0.927544 -0.0908828 
-0.435458 -0.923503 -0.0900168 
-0.438153 -0.918691 -0.0872263 
-0.441232 -0.913976 -0.084917 
-0.44383 -0.909069 -0.0818379 
-0.44585 -0.903873 -0.0780851 
-0.447775 -0.898581 -0.07414 
-0.449122 -0.893 -0.0693288 
-0.449699 -0.88713 -0.0636516 
-0.449603 -0.880876 -0.0570122 
-0.449122 -0.875968 -0.0514313 
-0.32153 -0.489728 0.45605 
-0.327881 -0.489824 0.450854 
-0.334328 -0.490017 0.445177 
-0.340871 -0.490306 0.439692 
-0.347318 -0.490498 0.434111 
-0.353669 -0.490787 0.428723 
-0.360019 -0.491075 0.423334 
-0.36637 -0.491268 0.417849 
-0.373009 -0.491845 0.41198 
-0.379745 -0.492519 0.405725 
-0.386384 -0.493096 0.39976 
-0.393024 -0.493673 0.393697 
-0.399663 -0.494347 0.387539 
-0.406303 -0.49502 0.381477 
-0.412846 -0.49579 0.375223 
-0.419389 -0.496464 0.369064 
-0.42574 -0.497137 0.363002 
-0.43209 -0.497811 0.356844 
-0.438345 -0.498388 0.35107 
-0.444503 -0.498869 0.345393 
-0.450565 -0.499254 0.339909 
-0.456435 -0.499639 0.334616 
-0.462401 -0.500024 0.32942 
-0.468078 -0.500313 0.32432 
-0.473755 -0.500505 0.319413 
-0.479336 -0.500601 0.314794 
-0.484725 -0.500698 0.310272 
-0.490209 -0.50089 0.305653 
-0.495598 -0.50089 0.301227 
-0.500794 -0.50089 0.296993 
-0.506279 -0.500986 0.292374 
-0.511763 -0.501275 0.287659 
-0.516959 -0.501275 0.283329 
-0.521963 -0.501179 0.279481 
-0.52687 -0.50089 0.275728 
-0.531874 -0.500794 0.271879 
-0.536878 -0.500698 0.267741 
-0.541881 -0.500601 0.263604 
-0.546885 -0.500601 0.259466 
-0.551888 -0.500601 0.255521 
-0.556796 -0.500505 0.251383 
-0.561799 -0.500601 0.247246 
-0.566707 -0.500409 0.243397 
-0.571422 -0.500313 0.239644 
-0.576329 -0.500216 0.235603 
-0.581236 -0.500216 0.231561 
-0.586336 -0.500409 0.227231 
-0.59134 -0.500601 0.222901 
-0.596344 -0.500698 0.218571 
-0.601251 -0.50089 0.214337 
-0.606255 -0.501083 0.210007 
-0.611258 -0.501275 0.205773 
-0.616262 -0.501564 0.201347 
-0.621073 -0.50166 0.19721 
-0.625788 -0.50166 0.193457 
-0.63031 -0.50166 0.189704 
-0.635025 -0.501756 0.185759 
-0.640125 -0.502141 0.181237 
-0.645417 -0.502815 0.176233 
-0.650902 -0.503873 0.170748 
-0.658985 -0.506375 0.161415 
-0.669569 -0.510416 0.148521 
-0.678326 -0.513688 0.138032 
-0.684388 -0.51542 0.131297 
-0.68968 -0.516478 0.125908 
-0.694395 -0.516863 0.121674 
-0.700746 -0.516767 0.116671 
-0.708444 -0.515708 0.111475 
-0.715564 -0.514265 0.107337 
-0.722492 -0.512533 0.103584 
-0.728843 -0.510224 0.100794 
-0.734809 -0.507433 0.0988695 
-0.740678 -0.504739 0.0967525 
-0.746163 -0.501371 0.0958865 
-0.751552 -0.498003 0.0950205 
-0.756844 -0.494539 0.0942507 
-0.761559 -0.490498 0.0945394 
-0.76637 -0.486457 0.094828 
-0.770892 -0.48203 0.0956941 
-0.775126 -0.477315 0.0972336 
-0.779168 -0.472408 0.0989656 
-0.782824 -0.466731 0.101852 
-0.785903 -0.460476 0.105894 
-0.788598 -0.453644 0.110801 
-0.791099 -0.446524 0.116093 
-0.793313 -0.438826 0.122252 
-0.79466 -0.432475 0.127833 
-0.795045 -0.427664 0.132355 
-0.425066 -0.934953 -0.0879961 
-0.429396 -0.931008 -0.0874187 
-0.43363 -0.926967 -0.0867452 
-0.437383 -0.922637 -0.0852057 
-0.440558 -0.918018 -0.0829925 
-0.443349 -0.913303 -0.0803945 
-0.44585 -0.908299 -0.0772191 
-0.447871 -0.903007 -0.0733702 
-0.449507 -0.897618 -0.0690401 
-0.450662 -0.891941 -0.0640365 
-0.451239 -0.885975 -0.0582631 
-0.451046 -0.879721 -0.0515275 
-0.45018 -0.874717 -0.0455617 
-0.329805 -0.492326 0.452875 
-0.336445 -0.492711 0.447101 
-0.342699 -0.492807 0.441809 
-0.348857 -0.492904 0.436709 
-0.355401 -0.493192 0.430936 
-0.361944 -0.493577 0.425259 
-0.368294 -0.493866 0.419774 
-0.374838 -0.494347 0.414001 
-0.381381 -0.494924 0.408035 
-0.387924 -0.495405 0.402357 
-0.394371 -0.495886 0.396584 
-0.400914 -0.496464 0.390522 
-0.407265 -0.496945 0.384941 
-0.413519 -0.49733 0.37936 
-0.420063 -0.498196 0.372913 
-0.426606 -0.499062 0.366466 
-0.432764 -0.499543 0.360693 
-0.439019 -0.500024 0.35492 
-0.445177 -0.500505 0.349146 
-0.451143 -0.50089 0.343854 
-0.457109 -0.501275 0.338369 
-0.463074 -0.501756 0.333077 
-0.468752 -0.501949 0.328169 
-0.474332 -0.502141 0.323454 
-0.479721 -0.502141 0.318932 
-0.485109 -0.502141 0.314602 
-0.490402 -0.502141 0.310176 
-0.495886 -0.502333 0.305557 
-0.501275 -0.50243 0.301034 
-0.506567 -0.50243 0.296704 
-0.51186 -0.502526 0.292374 
-0.517056 -0.502526 0.288141 
-0.522155 -0.502526 0.283907 
-0.527255 -0.50243 0.279865 
-0.532163 -0.502237 0.276113 
-0.53707 -0.502045 0.272264 
-0.542074 -0.501949 0.268126 
-0.546981 -0.501949 0.264085 
-0.551792 -0.50166 0.260332 
-0.556603 -0.501564 0.256483 
-0.561511 -0.501467 0.252634 
-0.566322 -0.501275 0.248881 
-0.571133 -0.501083 0.245033 
-0.575944 -0.500986 0.241087 
-0.580755 -0.500986 0.237142 
-0.585759 -0.501083 0.232908 
-0.590763 -0.501275 0.228675 
-0.59567 -0.501275 0.224537 
-0.600577 -0.501371 0.220399 
-0.605581 -0.50166 0.215973 
-0.610488 -0.501852 0.211739 
-0.6153 -0.501949 0.207698 
-0.620111 -0.501949 0.203753 
-0.624633 -0.501852 0.200096 
-0.629252 -0.501756 0.19644 
-0.633967 -0.501756 0.192591 
-0.638682 -0.501949 0.188453 
-0.643782 -0.50243 0.183835 
-0.64917 -0.503199 0.178735 
-0.68458 -0.516959 0.135338 
-0.690065 -0.518114 0.129757 
-0.69478 -0.518691 0.125331 
-0.701227 -0.518595 0.120231 
-0.709021 -0.517729 0.114842 
-0.716238 -0.516382 0.110416 
-0.72307 -0.514554 0.10676 
-0.729516 -0.512244 0.103873 
-0.735386 -0.509454 0.101949 
-0.741352 -0.506856 0.0998317 
-0.746933 -0.503681 0.0985807 
-0.752225 -0.500216 0.0979072 
-0.757421 -0.496656 0.0974261 
-0.762329 -0.492711 0.0975223 
-0.767044 -0.48867 0.097811 
-0.771566 -0.484243 0.098677 
-0.775896 -0.479625 0.100024 
-0.779937 -0.474621 0.101756 
-0.78369 -0.469233 0.10445 
-0.786769 -0.462882 0.108492 
-0.789464 -0.456146 0.113303 
-0.792062 -0.449218 0.118403 
-0.793986 -0.443733 0.122444 
-0.794852 -0.439692 0.126004 
-0.795622 -0.435266 0.129853 
-0.796199 -0.430551 0.134183 
-0.42574 -0.936204 -0.0851094 
-0.430166 -0.932259 -0.0847245 
-0.4344 -0.928314 -0.0839547 
-0.438153 -0.923984 -0.0826076 
-0.441232 -0.919365 -0.080202 
-0.444118 -0.91465 -0.077604 
-0.44662 -0.909646 -0.0745249 
-0.44893 -0.904547 -0.0710608 
-0.450469 -0.899158 -0.0667308 
-0.451624 -0.893481 -0.0616309 
-0.452201 -0.887515 -0.0558575 
-0.45249 -0.882896 -0.0512389 
-0.452105 -0.879625 -0.0474862 
-0.451431 -0.876257 -0.0433486 
-0.332018 -0.494828 0.453933 
-0.338561 -0.495117 0.448256 
-0.345105 -0.495405 0.442675 
-0.351359 -0.495598 0.437479 
-0.357421 -0.495598 0.432475 
-0.36358 -0.495694 0.427279 
-0.36993 -0.495983 0.421891 
-0.376281 -0.496271 0.41631 
-0.382824 -0.496849 0.41044 
-0.389367 -0.497426 0.404571 
-0.395718 -0.497907 0.398893 
-0.402261 -0.498484 0.392928 
-0.408804 -0.499062 0.386866 
-0.415251 -0.499735 0.380804 
-0.421602 -0.500313 0.374838 
-0.42776 -0.500794 0.369064 
-0.434015 -0.501371 0.363098 
-0.440366 -0.502045 0.357133 
-0.446524 -0.502526 0.351455 
-0.452394 -0.502815 0.346163 
-0.458167 -0.503103 0.34116 
-0.463748 -0.503199 0.336348 
-0.469329 -0.503296 0.33173 
-0.47491 -0.503488 0.326919 
-0.480491 -0.503681 0.322107 
-0.485975 -0.503873 0.317489 
-0.491268 -0.503873 0.313159 
-0.49656 -0.503873 0.308828 
-0.501949 -0.503969 0.304306 
-0.507241 -0.503969 0.299976 
-0.512341 -0.503873 0.295935 
-0.517537 -0.503873 0.291797 
-0.522733 -0.503969 0.287371 
-0.527833 -0.503969 0.283137 
-0.532836 -0.503777 0.279192 
-0.537551 -0.503488 0.275632 
-0.542266 -0.503103 0.272167 
-0.547077 -0.502815 0.268415 
-0.551888 -0.502718 0.264566 
-0.556796 -0.502526 0.260717 
-0.561607 -0.50243 0.256868 
-0.566418 -0.502237 0.253019 
-0.571325 -0.502237 0.249074 
-0.576233 -0.502237 0.244936 
-0.580948 -0.502141 0.241184 
-0.585759 -0.502045 0.237335 
-0.590666 -0.502045 0.233197 
-0.595478 -0.502141 0.229156 
-0.600481 -0.502237 0.224922 
-0.605389 -0.502333 0.220784 
-0.610103 -0.50243 0.216839 
-0.614818 -0.50243 0.212798 
-0.619533 -0.50243 0.209045 
-0.624056 -0.502237 0.205485 
-0.628675 -0.502141 0.201925 
-0.633293 -0.502141 0.197979 
-0.638201 -0.502333 0.193842 
-0.6433 -0.502815 0.189127 
-0.648497 -0.503584 0.184027 
-0.685158 -0.518691 0.138321 
-0.690642 -0.519846 0.13274 
-0.695453 -0.520423 0.128121 
-0.699976 -0.520616 0.124369 
-0.706038 -0.520231 0.119846 
-0.713447 -0.519076 0.115035 
-0.720472 -0.51744 0.110994 
-0.727015 -0.515324 0.107914 
-0.733173 -0.512822 0.105509 
-0.739139 -0.510127 0.103488 
-0.744816 -0.507048 0.102045 
-0.750301 -0.503873 0.10089 
-0.755593 -0.500409 0.100024 
-0.760597 -0.496656 0.0999279 
-0.765312 -0.492615 0.100409 
-0.770123 -0.488477 0.100698 
-0.774549 -0.484051 0.101756 
-0.778687 -0.479144 0.103488 
-0.782632 -0.47414 0.105413 
-0.786096 -0.46827 0.108684 
-0.788982 -0.461823 0.113014 
-0.79158 -0.454895 0.118114 
-0.794082 -0.447679 0.123599 
-0.795622 -0.441809 0.128506 
-0.796392 -0.437479 0.132355 
-0.796873 -0.432764 0.136781 
-0.423815 -0.939187 -0.0824152 
-0.42853 -0.935434 -0.0822227 
-0.432764 -0.931393 -0.0815491 
-0.43719 -0.927544 -0.0810681 
-0.440558 -0.923021 -0.0792398 
-0.443541 -0.918403 -0.076738 
-0.446331 -0.913592 -0.0740437 
-0.448641 -0.908492 -0.0705797 
-0.450469 -0.903199 -0.0665383 
-0.452297 -0.897811 -0.0624007 
-0.453067 -0.891941 -0.0568198 
-0.453452 -0.885879 -0.050854 
-0.453452 -0.881261 -0.0458503 
-0.452778 -0.877797 -0.0416165 
-0.451816 -0.874236 -0.037094 
-0.33962 -0.49656 0.451046 
-0.346067 -0.496849 0.445466 
-0.35261 -0.497234 0.439692 
-0.358865 -0.497426 0.434496 
-0.36483 -0.49733 0.429685 
-0.371085 -0.497618 0.424296 
-0.377532 -0.498003 0.418715 
-0.383883 -0.498388 0.413038 
-0.39033 -0.498869 0.407265 
-0.396873 -0.499447 0.401299 
-0.403416 -0.500024 0.395429 
-0.409767 -0.500505 0.389656 
-0.416021 -0.501083 0.383786 
-0.422179 -0.501564 0.378013 
-0.428434 -0.502141 0.372143 
-0.434688 -0.502622 0.366274 
-0.440654 -0.503007 0.360885 
-0.446716 -0.503392 0.355401 
-0.452875 -0.503873 0.349723 
-0.458552 -0.504162 0.34472 
-0.464133 -0.504258 0.340005 
-0.469714 -0.50445 0.335194 
-0.475295 -0.504643 0.330383 
-0.480876 -0.504739 0.325668 
-0.48636 -0.504931 0.321049 
-0.491749 -0.504931 0.316623 
-0.496945 -0.504931 0.312485 
-0.502045 -0.504739 0.308444 
-0.507241 -0.504739 0.304114 
-0.512437 -0.504739 0.29988 
-0.517537 -0.504643 0.295838 
-0.522733 -0.504739 0.291508 
-0.527833 -0.504739 0.287275 
-0.53274 -0.504547 0.283426 
-0.537744 -0.504354 0.279481 
-0.542651 -0.504258 0.275535 
-0.547462 -0.504065 0.271783 
-0.552177 -0.503777 0.268126 
-0.556988 -0.503584 0.264373 
-0.561703 -0.503392 0.260621 
-0.566514 -0.503199 0.256868 
-0.571229 -0.503007 0.253211 
-0.575944 -0.502815 0.249363 
-0.580659 -0.502622 0.24561 
-0.585278 -0.50243 0.24205 
-0.590185 -0.502526 0.237912 
-0.595285 -0.502718 0.233582 
-0.6 -0.502718 0.229733 
-0.604715 -0.502622 0.225884 
-0.60943 -0.502622 0.221939 
-0.614145 -0.502622 0.21809 
-0.618764 -0.502526 0.214434 
-0.623094 -0.502141 0.211162 
-0.62752 -0.501852 0.207987 
-0.632042 -0.501756 0.20433 
-0.636757 -0.501852 0.200385 
-0.641665 -0.502141 0.195959 
-0.647149 -0.503103 0.190474 
-0.690835 -0.521001 0.136108 
-0.695935 -0.521867 0.131008 
-0.700457 -0.522155 0.127063 
-0.704595 -0.521963 0.12408 
-0.710176 -0.521193 0.120327 
-0.717392 -0.51975 0.115805 
-0.724224 -0.517922 0.112244 
-0.730479 -0.515516 0.109646 
-0.737022 -0.513495 0.106471 
-0.742795 -0.510609 0.104835 
-0.74828 -0.507433 0.103584 
-0.753669 -0.503969 0.102718 
-0.758672 -0.500409 0.102333 
-0.763676 -0.496464 0.10243 
-0.768391 -0.492422 0.102718 
-0.772913 -0.488092 0.103488 
-0.777339 -0.48357 0.104739 
-0.781381 -0.478662 0.106471 
-0.785134 -0.473274 0.108973 
-0.788405 -0.467308 0.112533 
-0.791196 -0.460669 0.117248 
-0.793794 -0.453644 0.122348 
-0.795622 -0.44816 0.126582 
-0.796584 -0.444215 0.129853 
-0.79745 -0.440077 0.13351 
-0.798027 -0.435458 0.13784 
-0.79822 -0.430166 0.143132 
-0.4242 -0.940438 -0.0795284 
-0.429011 -0.936685 -0.0796247 
-0.433438 -0.932836 -0.0791435 
-0.438056 -0.928987 -0.0790474 
-0.441617 -0.924657 -0.0773154 
-0.444311 -0.919846 -0.0745249 
-0.447198 -0.915035 -0.0718306 
-0.449507 -0.910031 -0.0684628 
-0.451528 -0.904835 -0.0646139 
-0.452875 -0.899254 -0.0598989 
-0.454029 -0.893481 -0.0547991 
-0.454607 -0.889151 -0.0507577 
-0.454703 -0.886072 -0.0474862 
-0.45451 -0.8828 -0.0439259 
-0.454126 -0.879529 -0.0401732 
-0.453452 -0.876064 -0.0359393 
-0.341063 -0.498677 0.452779 
-0.347222 -0.498773 0.447582 
-0.353669 -0.498966 0.442098 
-0.359827 -0.499158 0.436805 
-0.365985 -0.499254 0.431609 
-0.372143 -0.49935 0.42651 
-0.378398 -0.499639 0.421121 
-0.384845 -0.50012 0.415348 
-0.391292 -0.500601 0.409671 
-0.397643 -0.501083 0.403897 
-0.403993 -0.501564 0.39822 
-0.410344 -0.502045 0.392447 
-0.416599 -0.502622 0.386673 
-0.422564 -0.502911 0.381188 
-0.428626 -0.503296 0.375607 
-0.434785 -0.503681 0.370026 
-0.440847 -0.504162 0.364349 
-0.447005 -0.504643 0.358768 
-0.452875 -0.505028 0.35338 
-0.458648 -0.50522 0.348376 
-0.464325 -0.505509 0.343373 
-0.470002 -0.505701 0.338562 
-0.475487 -0.505701 0.334039 
-0.480876 -0.505797 0.32942 
-0.486264 -0.505894 0.324994 
-0.491653 -0.505894 0.320664 
-0.497041 -0.50599 0.316142 
-0.502141 -0.505894 0.312004 
-0.507241 -0.505797 0.307866 
-0.512629 -0.50599 0.303344 
-0.517825 -0.50599 0.299014 
-0.522925 -0.505894 0.294972 
-0.527929 -0.505797 0.290931 
-0.532836 -0.505701 0.286986 
-0.53784 -0.505605 0.283041 
-0.542651 -0.505413 0.279192 
-0.547366 -0.505028 0.275632 
-0.552081 -0.504739 0.271975 
-0.556892 -0.504547 0.268319 
-0.561511 -0.504162 0.264855 
-0.566033 -0.503873 0.261391 
-0.570748 -0.503584 0.25783 
-0.575463 -0.503488 0.253981 
-0.580178 -0.503199 0.250325 
-0.584797 -0.503007 0.246668 
-0.589608 -0.503103 0.242723 
-0.594612 -0.503199 0.238489 
-0.599326 -0.503103 0.23464 
-0.603945 -0.503007 0.230984 
-0.608468 -0.502815 0.227327 
-0.613086 -0.502718 0.223671 
-0.617609 -0.50243 0.220303 
-0.621843 -0.502045 0.217224 
-0.626269 -0.501756 0.21376 
-0.630791 -0.501564 0.210296 
-0.635314 -0.501564 0.206639 
-0.640318 -0.501949 0.202117 
-0.645802 -0.502911 0.196632 
-0.691123 -0.52254 0.138995 
-0.696031 -0.523214 0.134376 
-0.700553 -0.523503 0.130431 
-0.704787 -0.523406 0.126967 
-0.710464 -0.522733 0.123214 
-0.717777 -0.521386 0.118691 
-0.724705 -0.51975 0.114746 
-0.731152 -0.517537 0.111763 
-0.737407 -0.515131 0.109262 
-0.742988 -0.512052 0.107818 
-0.748665 -0.509069 0.106279 
-0.754053 -0.505701 0.105413 
-0.759153 -0.502045 0.104931 
-0.764061 -0.498292 0.104931 
-0.768872 -0.494251 0.105124 
-0.773491 -0.490017 0.105894 
-0.777821 -0.485398 0.107145 
-0.781862 -0.480491 0.108877 
-0.785711 -0.475198 0.111282 
-0.789079 -0.469425 0.11465 
-0.791965 -0.462882 0.119076 
-0.794467 -0.455954 0.124272 
-0.796392 -0.450565 0.128314 
-0.797354 -0.44662 0.131585 
-0.798124 -0.44229 0.135434 
-0.798701 -0.437671 0.139764 
-0.799086 -0.432668 0.144672 
-0.421602 -0.943421 -0.0761606 
-0.426798 -0.939957 -0.076738 
-0.431609 -0.936204 -0.076738 
-0.435843 -0.932259 -0.0761606 
-0.440077 -0.928217 -0.0752947 
-0.443349 -0.923695 -0.0732739 
-0.446428 -0.919076 -0.0709646 
-0.449122 -0.914265 -0.0680779 
-0.451239 -0.909069 -0.0644214 
-0.45326 -0.903873 -0.0606687 
-0.454607 -0.898292 -0.0558575 
-0.455665 -0.892519 -0.0506615 
-0.455761 -0.8879 -0.0458503 
-0.455761 -0.884725 -0.0424825 
-0.455665 -0.881549 -0.0391147 
-0.45528 -0.878181 -0.0352658 
-0.348088 -0.500601 0.449892 
-0.354246 -0.500698 0.444696 
-0.360308 -0.500698 0.439692 
-0.366274 -0.500698 0.434785 
-0.372528 -0.50089 0.429396 
-0.378879 -0.501275 0.423815 
-0.38523 -0.50166 0.418331 
-0.391484 -0.501949 0.412846 
-0.397739 -0.502333 0.407361 
-0.403993 -0.502815 0.40178 
-0.41044 -0.503392 0.395814 
-0.416791 -0.503969 0.389848 
-0.422949 -0.50445 0.383979 
-0.429011 -0.504835 0.378494 
-0.434881 -0.505028 0.373298 
-0.440751 -0.505316 0.368006 
-0.446716 -0.505701 0.362617 
-0.45249 -0.505894 0.357614 
-0.458071 -0.50599 0.352899 
-0.463652 -0.506086 0.348088 
-0.469329 -0.506375 0.34318 
-0.47491 -0.506567 0.338369 
-0.480395 -0.506567 0.333847 
-0.485783 -0.50676 0.329228 
-0.491268 -0.506856 0.324609 
-0.49656 -0.506856 0.320279 
-0.501756 -0.50676 0.316142 
-0.506856 -0.50676 0.312004 
-0.512052 -0.50676 0.307866 
-0.517152 -0.506663 0.303729 
-0.522155 -0.506567 0.299687 
-0.527159 -0.506471 0.295646 
-0.532163 -0.506279 0.291701 
-0.537166 -0.506279 0.287563 
-0.542074 -0.506086 0.283618 
-0.546789 -0.505797 0.280058 
-0.551503 -0.505509 0.276497 
-0.556218 -0.50522 0.272841 
-0.560741 -0.504835 0.269569 
-0.565263 -0.504354 0.266202 
-0.569882 -0.504162 0.262641 
-0.574597 -0.503969 0.258985 
-0.579312 -0.503777 0.255232 
-0.584027 -0.503584 0.25148 
-0.588646 -0.503392 0.247823 
-0.593361 -0.503296 0.24407 
-0.598076 -0.503199 0.240318 
-0.602694 -0.503103 0.236565 
-0.607313 -0.502911 0.233005 
-0.611835 -0.502718 0.229444 
-0.616166 -0.50243 0.226077 
-0.620496 -0.502045 0.222997 
-0.624729 -0.501564 0.219918 
-0.629156 -0.501275 0.21655 
-0.633774 -0.501275 0.212894 
-0.638489 -0.501371 0.208853 
-0.643685 -0.502045 0.203849 
-0.649747 -0.503584 0.197306 
-0.690739 -0.523599 0.142747 
-0.696031 -0.524657 0.137455 
-0.700553 -0.524946 0.13351 
-0.704691 -0.52485 0.130142 
-0.710561 -0.524369 0.126004 
-0.717873 -0.523021 0.121386 
-0.724705 -0.521289 0.117729 
-0.731249 -0.519269 0.114458 
-0.737599 -0.516863 0.111763 
-0.743276 -0.513976 0.110128 
-0.748954 -0.510994 0.108684 
-0.754246 -0.507626 0.107818 
-0.759346 -0.503969 0.107433 
-0.764349 -0.50012 0.107337 
-0.76916 -0.496079 0.107626 
-0.773779 -0.491941 0.108203 
-0.778205 -0.487419 0.109262 
-0.782247 -0.482608 0.110897 
-0.786192 -0.477412 0.11311 
-0.789656 -0.471734 0.116286 
-0.792543 -0.465287 0.120616 
-0.795141 -0.458359 0.125812 
-0.796969 -0.452875 0.12995 
-0.798027 -0.449026 0.133125 
-0.798893 -0.444984 0.136685 
-0.799471 -0.440366 0.141015 
-0.799759 -0.435362 0.145923 
-0.421602 -0.944479 -0.0733702 
-0.426991 -0.941111 -0.0742362 
-0.431706 -0.937359 -0.0743324 
-0.436036 -0.933414 -0.0737551 
-0.440269 -0.929372 -0.0729853 
-0.443926 -0.925042 -0.0714457 
-0.447198 -0.92052 -0.0693288 
-0.449892 -0.915708 -0.0665383 
-0.452201 -0.910705 -0.0631705 
-0.454126 -0.905413 -0.0592253 
-0.455665 -0.899928 -0.0547029 
-0.456531 -0.895694 -0.050854 
-0.456916 -0.892711 -0.0480635 
-0.457205 -0.889728 -0.0451768 
-0.457493 -0.886745 -0.0422901 
-0.457397 -0.88357 -0.0389222 
-0.456916 -0.880202 -0.0348809 
-0.456435 -0.876834 -0.0308395 
-0.353957 -0.501564 0.448064 
-0.359923 -0.501564 0.443156 
-0.366274 -0.501852 0.437671 
-0.372336 -0.501852 0.432668 
-0.378398 -0.501949 0.427568 
-0.384652 -0.502333 0.422083 
-0.391003 -0.502718 0.416406 
-0.39745 -0.503296 0.410633 
-0.403608 -0.503681 0.405244 
-0.409767 -0.503969 0.39976 
-0.415925 -0.50445 0.394082 
-0.422083 -0.504835 0.388309 
-0.428338 -0.505413 0.382439 
-0.434304 -0.505701 0.377051 
-0.439981 -0.505797 0.372047 
-0.44585 -0.50599 0.366947 
-0.45172 -0.506375 0.361751 
-0.457493 -0.506663 0.356748 
-0.463171 -0.506856 0.351744 
-0.468848 -0.507048 0.346933 
-0.474332 -0.507145 0.342314 
-0.479721 -0.507145 0.337792 
-0.485013 -0.507145 0.333462 
-0.490402 -0.507241 0.328939 
-0.495694 -0.507337 0.324513 
-0.500794 -0.507241 0.320375 
-0.505894 -0.507145 0.316334 
-0.510994 -0.507048 0.312293 
-0.51619 -0.506952 0.308155 
-0.521289 -0.506952 0.304017 
-0.526389 -0.506856 0.29988 
-0.531489 -0.506856 0.295646 
-0.536396 -0.50676 0.291701 
-0.541208 -0.506471 0.287948 
-0.545826 -0.506182 0.284388 
-0.550445 -0.505797 0.280924 
-0.555256 -0.505605 0.277171 
-0.560067 -0.505413 0.273418 
-0.56459 -0.505028 0.270051 
-0.569016 -0.504547 0.266875 
-0.573539 -0.504162 0.263604 
-0.578157 -0.503969 0.259947 
-0.582969 -0.503777 0.256098 
-0.587587 -0.503681 0.252442 
-0.592206 -0.503392 0.248881 
-0.596825 -0.503296 0.245129 
-0.60154 -0.503199 0.241376 
-0.606062 -0.503007 0.237816 
-0.610585 -0.502718 0.234352 
-0.615011 -0.50243 0.230984 
-0.619245 -0.502045 0.228001 
-0.623382 -0.501467 0.225211 
-0.627616 -0.500986 0.222035 
-0.632139 -0.50089 0.218475 
-0.636757 -0.50089 0.214722 
-0.641568 -0.501083 0.210585 
-0.646765 -0.50166 0.205677 
-0.695357 -0.525331 0.141304 
-0.700072 -0.525812 0.136974 
-0.704402 -0.525908 0.133414 
-0.708444 -0.525716 0.130238 
-0.712293 -0.525331 0.127544 
-0.717681 -0.524272 0.124272 
-0.724513 -0.522444 0.120616 
-0.731249 -0.520616 0.116959 
-0.737599 -0.518306 0.114169 
-0.743373 -0.515516 0.112341 
-0.74905 -0.512437 0.110897 
-0.754535 -0.509261 0.109743 
-0.759538 -0.505605 0.10955 
-0.764542 -0.501852 0.109262 
-0.769449 -0.497907 0.109358 
-0.774164 -0.49377 0.109839 
-0.778494 -0.489343 0.110897 
-0.782632 -0.484532 0.112533 
-0.786577 -0.479432 0.11465 
-0.790137 -0.473851 0.117633 
-0.793024 -0.467404 0.121867 
-0.795237 -0.462497 0.125331 
-0.796584 -0.459129 0.127736 
-0.797739 -0.455473 0.130527 
-0.798893 -0.45172 0.133606 
-0.799759 -0.447679 0.136974 
-0.800529 -0.443252 0.141111 
-0.800914 -0.438441 0.14573 
-0.4191 -0.946981 -0.0706759 
-0.424585 -0.943613 -0.0717344 
-0.429877 -0.940053 -0.0724079 
-0.434592 -0.936396 -0.0724079 
-0.438634 -0.932259 -0.0714457 
-0.442675 -0.928121 -0.0703873 
-0.446043 -0.923695 -0.068559 
-0.449122 -0.919076 -0.0661534 
-0.45172 -0.914265 -0.0631705 
-0.453741 -0.909069 -0.0594178 
-0.455184 -0.905028 -0.0564349 
-0.455954 -0.902333 -0.0542218 
-0.456627 -0.899543 -0.0518162 
-0.457205 -0.896656 -0.0493144 
-0.457686 -0.89377 -0.0466201 
-0.458167 -0.890883 -0.0439259 
-0.458359 -0.887804 -0.040943 
-0.458167 -0.884628 -0.0373827 
-0.457686 -0.881261 -0.0334375 
-0.457301 -0.877893 -0.0295886 
-0.355304 -0.502911 0.44893 
-0.361366 -0.503007 0.443926 
-0.367428 -0.503007 0.438922 
-0.373106 -0.502815 0.434496 
-0.379071 -0.502911 0.429493 
-0.385422 -0.503296 0.423912 
-0.391773 -0.503681 0.418331 
-0.398124 -0.504162 0.412557 
-0.404378 -0.504643 0.406976 
-0.410536 -0.505028 0.401395 
-0.416695 -0.505413 0.395718 
-0.422757 -0.505797 0.390137 
-0.428819 -0.506182 0.384556 
-0.434785 -0.506471 0.379168 
-0.440558 -0.50676 0.374068 
-0.446235 -0.506856 0.369257 
-0.451912 -0.507048 0.364253 
-0.457782 -0.507337 0.359153 
-0.463555 -0.507626 0.354054 
-0.469136 -0.507818 0.349242 
-0.474429 -0.507722 0.344912 
-0.479817 -0.507818 0.340486 
-0.485302 -0.507914 0.335771 
-0.49069 -0.508011 0.331249 
-0.495983 -0.508011 0.326919 
-0.501083 -0.507914 0.322877 
-0.506182 -0.507818 0.318836 
-0.511378 -0.507818 0.314506 
-0.516671 -0.507914 0.310079 
-0.521867 -0.507914 0.305846 
-0.526774 -0.507818 0.3019 
-0.531682 -0.507626 0.297955 
-0.536493 -0.507337 0.294299 
-0.541208 -0.507048 0.290739 
-0.545923 -0.50676 0.287082 
-0.550541 -0.506375 0.283618 
-0.555256 -0.506086 0.280154 
-0.559971 -0.505894 0.276305 
-0.56459 -0.505605 0.272841 
-0.569112 -0.505124 0.269666 
-0.573635 -0.504835 0.266202 
-0.578254 -0.504547 0.262641 
-0.582872 -0.504354 0.258985 
-0.587587 -0.504162 0.255232 
-0.592206 -0.504065 0.25148 
-0.596825 -0.503873 0.247919 
-0.601347 -0.503584 0.244551 
-0.605773 -0.503296 0.241087 
-0.610296 -0.503103 0.237623 
-0.61453 -0.502526 0.23464 
-0.618667 -0.502045 0.23185 
-0.622997 -0.50166 0.228675 
-0.627231 -0.501275 0.225499 
-0.631657 -0.501083 0.222035 
-0.636469 -0.501179 0.217994 
-0.64128 -0.501467 0.21376 
